# .PCD v0.7 - Point Cloud Data file format
VERSION 0.7
FIELDS x y z
SIZE 4 4 4
TYPE F F F
COUNT 1 1 1
WIDTH 1832
HEIGHT 1
VIEWPOINT 0 0 0 1 0 0 0
POINTS 1832
DATA ascii
0.10000014 -2.3855 0.31999999
0.10000014 -2.3855 0.34
0.10000014 -2.3855 0.36000001
0.10000014 -2.3855 0.38
0.10000014 -2.3855 0.40000001
0.10000014 -2.3855 0.41999999
0.10000014 -2.3855 0.44
0.10000014 -2.3855 0.46000001
0.10000014 -2.3855 0.47999999
0.10000014 -2.3855 0.5
0.10000014 -2.3855 0.51999998
0.10000014 -2.3855 0.54000002
0.10000014 -2.3855 0.56
0.10000014 -2.3855 0.57999998
0.10000014 -2.3855 0.60000002
0.10000014 -2.3855 0.62
0.10000014 -2.3855 0.63999999
0.10000014 -2.3855 0.66000003
0.10000014 -2.3855 0.68000001
0.10000014 -2.3855 0.69999999
0.10000014 -2.3855 0.72000003
0.10000014 -2.3855 0.74000001
0.10000014 -2.3855 0.75999999
0.10000014 -2.3855 0.77999997
2.24 -2.3855 0
2.24 -2.3855 0.02
2.24 -2.3855 0.039999999
2.24 -2.3855 0.059999999
2.24 -2.3855 0.079999998
2.24 -2.3855 0.1
2.24 -2.3855 0.12
2.24 -2.3855 0.14
2.24 -2.3855 0.16
2.24 -2.3855 0.18000001
2.24 -2.3855 0.2
2.24 -2.3855 0.22
2.24 -2.3855 0.23999999
2.24 -2.3855 0.25999999
2.24 -2.3855 0.28
2.24 -2.3855 0.30000001
2.24 -2.3855 0.31999999
2.24 -2.3855 0.34
2.24 -2.3855 0.36000001
2.24 -2.3855 0.38
2.24 -2.3855 0.40000001
2.24 -2.3855 0.41999999
2.24 -2.3855 0.44
2.24 -2.3855 0.46000001
2.24 -2.3855 0.47999999
2.24 -2.3855 0.5
2.24 -2.3855 0.51999998
2.24 -2.3855 0.54000002
2.24 -2.3855 0.56
2.24 -2.3855 0.57999998
2.24 -2.3855 0.60000002
2.24 -2.3855 0.62
2.24 -2.3855 0.63999999
2.24 -2.3855 0.66000003
2.24 -2.3855 0.68000001
2.24 -2.3855 0.69999999
2.24 -2.3855 0.72000003
2.24 -2.3855 0.74000001
2.24 -2.3855 0.75999999
2.24 -2.3855 0.77999997
-2.24 -2.3755002 0
-2.24 -2.3755002 0.02
-2.24 -2.3755002 0.039999999
-2.24 -2.3755002 0.059999999
-2.24 -2.3755002 0.079999998
-2.24 -2.3755002 0.1
-2.24 -2.3755002 0.12
-2.24 -2.3755002 0.14
-2.24 -2.3755002 0.16
-2.24 -2.3755002 0.18000001
-2.24 -2.3755002 0.2
-2.24 -2.3755002 0.22
-2.24 -2.3755002 0.23999999
-2.24 -2.3755002 0.25999999
-2.24 -2.3755002 0.28
-2.24 -2.3755002 0.30000001
-2.24 -2.3755002 0.31999999
-2.24 -2.3755002 0.34
-2.24 -2.3755002 0.36000001
-2.24 -2.3755002 0.38
-2.24 -2.3755002 0.40000001
-2.24 -2.3755002 0.41999999
-2.24 -2.3755002 0.44
-2.24 -2.3755002 0.46000001
-2.24 -2.3755002 0.47999999
-2.24 -2.3755002 0.5
-2.24 -2.3755002 0.51999998
-2.24 -2.3755002 0.54000002
-2.24 -2.3755002 0.56
-2.24 -2.3755002 0.57999998
-2.24 -2.3755002 0.60000002
-2.24 -2.3755002 0.62
-2.24 -2.3755002 0.63999999
-2.24 -2.3755002 0.66000003
-2.24 -2.3755002 0.68000001
-2.24 -2.3755002 0.69999999
-2.24 -2.3755002 0.72000003
-2.24 -2.3755002 0.74000001
-2.24 -2.3755002 0.75999999
-2.24 -2.3755002 0.77999997
-0.099999905 -2.3755002 0
-0.099999905 -2.3755002 0.02
-0.099999905 -2.3755002 0.039999999
-0.099999905 -2.3755002 0.059999999
-0.099999905 -2.3755002 0.079999998
-0.099999905 -2.3755002 0.1
-0.099999905 -2.3755002 0.12
-0.099999905 -2.3755002 0.14
-0.099999905 -2.3755002 0.16
-0.099999905 -2.3755002 0.18000001
-0.099999905 -2.3755002 0.2
-0.099999905 -2.3755002 0.22
-0.099999905 -2.3755002 0.23999999
-0.099999905 -2.3755002 0.25999999
-0.099999905 -2.3755002 0.28
-0.099999905 -2.3755002 0.30000001
-0.099999905 -2.3755002 0.31999999
-0.099999905 -2.3755002 0.34
-0.099999905 -2.3755002 0.36000001
-0.099999905 -2.3755002 0.38
-0.099999905 -2.3755002 0.40000001
-0.099999905 -2.3755002 0.41999999
-0.099999905 -2.3755002 0.44
-0.099999905 -2.3755002 0.46000001
-0.099999905 -2.3755002 0.47999999
-0.099999905 -2.3755002 0.5
-0.099999905 -2.3755002 0.51999998
-0.099999905 -2.3755002 0.54000002
-0.099999905 -2.3755002 0.56
-0.099999905 -2.3755002 0.57999998
-0.099999905 -2.3755002 0.60000002
-0.099999905 -2.3755002 0.62
-0.099999905 -2.3755002 0.63999999
-0.099999905 -2.3755002 0.66000003
-0.099999905 -2.3755002 0.68000001
-0.099999905 -2.3755002 0.69999999
-0.099999905 -2.3755002 0.72000003
-0.099999905 -2.3755002 0.74000001
-0.099999905 -2.3755002 0.75999999
-0.099999905 -2.3755002 0.77999997
0.10000014 -2.3755 0
0.10000014 -2.3755 0.02
0.10000014 -2.3755 0.039999999
0.10000014 -2.3755 0.059999999
0.10000014 -2.3755 0.079999998
0.10000014 -2.3755 0.1
0.10000014 -2.3755 0.12
0.10000014 -2.3755 0.14
0.10000014 -2.3755 0.16
0.10000014 -2.3755 0.18000001
0.10000014 -2.3755 0.2
0.10000014 -2.3755 0.22
0.10000014 -2.3755 0.23999999
0.10000014 -2.3755 0.25999999
0.10000014 -2.3755 0.28
0.10000014 -2.3755 0.30000001
0.10000014 -2.3755 0.31999999
0.10000014 -2.3755 0.34
0.10000014 -2.3755 0.36000001
0.10000014 -2.3755 0.38
0.10000014 -2.3755 0.40000001
0.10000014 -2.3755 0.41999999
0.10000014 -2.3755 0.44
0.10000014 -2.3755 0.46000001
0.10000014 -2.3755 0.47999999
0.10000014 -2.3755 0.5
0.10000014 -2.3755 0.51999998
0.10000014 -2.3755 0.54000002
0.10000014 -2.3755 0.56
0.10000014 -2.3755 0.57999998
0.10000014 -2.3755 0.60000002
0.10000014 -2.3755 0.62
0.10000014 -2.3755 0.63999999
0.10000014 -2.3755 0.66000003
0.10000014 -2.3755 0.68000001
0.10000014 -2.3755 0.69999999
0.10000014 -2.3755 0.72000003
0.10000014 -2.3755 0.74000001
0.10000014 -2.3755 0.75999999
0.10000014 -2.3755 0.77999997
2.24 -2.3755 0
2.24 -2.3755 0.02
2.24 -2.3755 0.039999999
2.24 -2.3755 0.059999999
2.24 -2.3755 0.079999998
2.24 -2.3755 0.1
2.24 -2.3755 0.12
2.24 -2.3755 0.14
2.24 -2.3755 0.16
2.24 -2.3755 0.18000001
2.24 -2.3755 0.2
2.24 -2.3755 0.22
2.24 -2.3755 0.23999999
2.24 -2.3755 0.25999999
2.24 -2.3755 0.28
2.24 -2.3755 0.30000001
2.24 -2.3755 0.31999999
2.24 -2.3755 0.34
2.24 -2.3755 0.36000001
2.24 -2.3755 0.38
2.24 -2.3755 0.40000001
2.24 -2.3755 0.41999999
2.24 -2.3755 0.44
2.24 -2.3755 0.46000001
2.24 -2.3755 0.47999999
2.24 -2.3755 0.5
2.24 -2.3755 0.51999998
2.24 -2.3755 0.54000002
2.24 -2.3755 0.56
2.24 -2.3755 0.57999998
2.24 -2.3755 0.60000002
2.24 -2.3755 0.62
2.24 -2.3755 0.63999999
2.24 -2.3755 0.66000003
2.24 -2.3755 0.68000001
2.24 -2.3755 0.69999999
2.24 -2.3755 0.72000003
2.24 -2.3755 0.74000001
2.24 -2.3755 0.75999999
2.24 -2.3755 0.77999997
-2.24 -2.3655 0
-2.24 -2.3655 0.02
-2.24 -2.3655 0.039999999
-2.24 -2.3655 0.059999999
-2.24 -2.3655 0.079999998
-2.24 -2.3655 0.1
-2.24 -2.3655 0.12
-2.24 -2.3655 0.14
-2.24 -2.3655 0.16
-2.24 -2.3655 0.18000001
-2.24 -2.3655 0.2
-2.24 -2.3655 0.22
-2.24 -2.3655 0.23999999
-2.24 -2.3655 0.25999999
-2.24 -2.3655 0.28
-2.24 -2.3655 0.30000001
-2.24 -2.3655 0.31999999
-2.24 -2.3655 0.34
-2.24 -2.3655 0.36000001
-2.24 -2.3655 0.38
-2.24 -2.3655 0.40000001
-2.24 -2.3655 0.41999999
-2.24 -2.3655 0.44
-2.24 -2.3655 0.46000001
-2.24 -2.3655 0.47999999
-2.24 -2.3655 0.5
-2.24 -2.3655 0.51999998
-2.24 -2.3655 0.54000002
-2.24 -2.3655 0.56
-2.24 -2.3655 0.57999998
-2.24 -2.3655 0.60000002
-2.24 -2.3655 0.62
-2.24 -2.3655 0.63999999
-2.24 -2.3655 0.66000003
-2.24 -2.3655 0.68000001
-2.24 -2.3655 0.69999999
-2.24 -2.3655 0.72000003
-2.24 -2.3655 0.74000001
-2.24 -2.3655 0.75999999
-2.24 -2.3655 0.77999997
-0.099999905 -2.3655 0
-0.099999905 -2.3655 0.02
-0.099999905 -2.3655 0.039999999
-0.099999905 -2.3655 0.059999999
-0.099999905 -2.3655 0.079999998
-0.099999905 -2.3655 0.1
-0.099999905 -2.3655 0.12
-0.099999905 -2.3655 0.14
-0.099999905 -2.3655 0.16
-0.099999905 -2.3655 0.18000001
-0.099999905 -2.3655 0.2
-0.099999905 -2.3655 0.22
-0.099999905 -2.3655 0.23999999
-0.099999905 -2.3655 0.25999999
-0.099999905 -2.3655 0.28
-0.099999905 -2.3655 0.30000001
-0.099999905 -2.3655 0.31999999
-0.099999905 -2.3655 0.34
-0.099999905 -2.3655 0.36000001
-0.099999905 -2.3655 0.38
-0.099999905 -2.3655 0.40000001
-0.099999905 -2.3655 0.41999999
-0.099999905 -2.3655 0.44
-0.099999905 -2.3655 0.46000001
-0.099999905 -2.3655 0.47999999
-0.099999905 -2.3655 0.5
-0.099999905 -2.3655 0.51999998
-0.099999905 -2.3655 0.54000002
-0.099999905 -2.3655 0.56
-0.099999905 -2.3655 0.57999998
-0.099999905 -2.3655 0.60000002
-0.099999905 -2.3655 0.62
-0.099999905 -2.3655 0.63999999
-0.099999905 -2.3655 0.66000003
-0.099999905 -2.3655 0.68000001
-0.099999905 -2.3655 0.69999999
-0.099999905 -2.3655 0.72000003
-0.099999905 -2.3655 0.74000001
-0.099999905 -2.3655 0.75999999
-0.099999905 -2.3655 0.77999997
0.10000014 -2.3655 0
0.10000014 -2.3655 0.02
0.10000014 -2.3655 0.039999999
0.10000014 -2.3655 0.059999999
0.10000014 -2.3655 0.079999998
0.10000014 -2.3655 0.1
0.10000014 -2.3655 0.12
0.10000014 -2.3655 0.14
0.10000014 -2.3655 0.16
0.10000014 -2.3655 0.18000001
0.10000014 -2.3655 0.2
0.10000014 -2.3655 0.22
0.10000014 -2.3655 0.23999999
0.10000014 -2.3655 0.25999999
0.10000014 -2.3655 0.28
0.10000014 -2.3655 0.30000001
0.10000014 -2.3655 0.31999999
0.10000014 -2.3655 0.34
0.10000014 -2.3655 0.36000001
0.10000014 -2.3655 0.38
0.10000014 -2.3655 0.40000001
0.10000014 -2.3655 0.41999999
0.10000014 -2.3655 0.44
0.10000014 -2.3655 0.46000001
0.10000014 -2.3655 0.47999999
0.10000014 -2.3655 0.5
0.10000014 -2.3655 0.51999998
0.10000014 -2.3655 0.54000002
0.10000014 -2.3655 0.56
0.10000014 -2.3655 0.57999998
0.10000014 -2.3655 0.60000002
0.10000014 -2.3655 0.62
0.10000014 -2.3655 0.63999999
0.10000014 -2.3655 0.66000003
0.10000014 -2.3655 0.68000001
0.10000014 -2.3655 0.69999999
0.10000014 -2.3655 0.72000003
0.10000014 -2.3655 0.74000001
0.10000014 -2.3655 0.75999999
0.10000014 -2.3655 0.77999997
2.24 -2.3655 0
2.24 -2.3655 0.02
2.24 -2.3655 0.039999999
2.24 -2.3655 0.059999999
2.24 -2.3655 0.079999998
2.24 -2.3655 0.1
2.24 -2.3655 0.12
2.24 -2.3655 0.14
2.24 -2.3655 0.16
2.24 -2.3655 0.18000001
2.24 -2.3655 0.2
2.24 -2.3655 0.22
2.24 -2.3655 0.23999999
2.24 -2.3655 0.25999999
2.24 -2.3655 0.28
2.24 -2.3655 0.30000001
2.24 -2.3655 0.31999999
2.24 -2.3655 0.34
2.24 -2.3655 0.36000001
2.24 -2.3655 0.38
2.24 -2.3655 0.40000001
2.24 -2.3655 0.41999999
2.24 -2.3655 0.44
2.24 -2.3655 0.46000001
2.24 -2.3655 0.47999999
2.24 -2.3655 0.5
2.24 -2.3655 0.51999998
2.24 -2.3655 0.54000002
2.24 -2.3655 0.56
2.24 -2.3655 0.57999998
2.24 -2.3655 0.60000002
2.24 -2.3655 0.62
2.24 -2.3655 0.63999999
2.24 -2.3655 0.66000003
2.24 -2.3655 0.68000001
2.24 -2.3655 0.69999999
2.24 -2.3655 0.72000003
2.24 -2.3655 0.74000001
2.24 -2.3655 0.75999999
2.24 -2.3655 0.77999997
-2.24 -2.3555 0
-2.24 -2.3555 0.02
-2.24 -2.3555 0.039999999
-2.24 -2.3555 0.059999999
-2.24 -2.3555 0.079999998
-2.24 -2.3555 0.1
-2.24 -2.3555 0.12
-2.24 -2.3555 0.14
-2.24 -2.3555 0.16
-2.24 -2.3555 0.18000001
-2.24 -2.3555 0.2
-2.24 -2.3555 0.22
-2.24 -2.3555 0.23999999
-2.24 -2.3555 0.25999999
-2.24 -2.3555 0.28
-2.24 -2.3555 0.30000001
-2.24 -2.3555 0.31999999
-2.24 -2.3555 0.34
-2.24 -2.3555 0.36000001
-2.24 -2.3555 0.38
-2.24 -2.3555 0.40000001
-2.24 -2.3555 0.41999999
-2.24 -2.3555 0.44
-2.24 -2.3555 0.46000001
-2.24 -2.3555 0.47999999
-2.24 -2.3555 0.5
-2.24 -2.3555 0.51999998
-2.24 -2.3555 0.54000002
-2.24 -2.3555 0.56
-2.24 -2.3555 0.57999998
-2.24 -2.3555 0.60000002
-2.24 -2.3555 0.62
-2.24 -2.3555 0.63999999
-2.24 -2.3555 0.66000003
-2.24 -2.3555 0.68000001
-2.24 -2.3555 0.69999999
-2.24 -2.3555 0.72000003
-2.24 -2.3555 0.74000001
-2.24 -2.3555 0.75999999
-2.24 -2.3555 0.77999997
-0.099999905 -2.3555 0
-0.099999905 -2.3555 0.02
-0.099999905 -2.3555 0.039999999
-0.099999905 -2.3555 0.059999999
-0.099999905 -2.3555 0.079999998
-0.099999905 -2.3555 0.1
-0.099999905 -2.3555 0.12
-0.099999905 -2.3555 0.14
-0.099999905 -2.3555 0.16
-0.099999905 -2.3555 0.18000001
-0.099999905 -2.3555 0.2
-0.099999905 -2.3555 0.22
-0.099999905 -2.3555 0.23999999
-0.099999905 -2.3555 0.25999999
-0.099999905 -2.3555 0.28
-0.099999905 -2.3555 0.30000001
-0.099999905 -2.3555 0.31999999
-0.099999905 -2.3555 0.34
-0.099999905 -2.3555 0.36000001
-0.099999905 -2.3555 0.38
-0.099999905 -2.3555 0.40000001
-0.099999905 -2.3555 0.41999999
-0.099999905 -2.3555 0.44
-0.099999905 -2.3555 0.46000001
-0.099999905 -2.3555 0.47999999
-0.099999905 -2.3555 0.5
-0.099999905 -2.3555 0.51999998
-0.099999905 -2.3555 0.54000002
-0.099999905 -2.3555 0.56
-0.099999905 -2.3555 0.57999998
-0.099999905 -2.3555 0.60000002
-0.099999905 -2.3555 0.62
-0.099999905 -2.3555 0.63999999
-0.099999905 -2.3555 0.66000003
-0.099999905 -2.3555 0.68000001
-0.099999905 -2.3555 0.69999999
-0.099999905 -2.3555 0.72000003
-0.099999905 -2.3555 0.74000001
-0.099999905 -2.3555 0.75999999
-0.099999905 -2.3555 0.77999997
0.10000014 -2.3555 0
0.10000014 -2.3555 0.02
0.10000014 -2.3555 0.039999999
0.10000014 -2.3555 0.059999999
0.10000014 -2.3555 0.079999998
0.10000014 -2.3555 0.1
0.10000014 -2.3555 0.12
0.10000014 -2.3555 0.14
0.10000014 -2.3555 0.16
0.10000014 -2.3555 0.18000001
0.10000014 -2.3555 0.2
0.10000014 -2.3555 0.22
0.10000014 -2.3555 0.23999999
0.10000014 -2.3555 0.25999999
0.10000014 -2.3555 0.28
0.10000014 -2.3555 0.30000001
0.10000014 -2.3555 0.31999999
0.10000014 -2.3555 0.34
0.10000014 -2.3555 0.36000001
0.10000014 -2.3555 0.38
0.10000014 -2.3555 0.40000001
0.10000014 -2.3555 0.41999999
0.10000014 -2.3555 0.44
0.10000014 -2.3555 0.46000001
0.10000014 -2.3555 0.47999999
0.10000014 -2.3555 0.5
0.10000014 -2.3555 0.51999998
0.10000014 -2.3555 0.54000002
0.10000014 -2.3555 0.56
0.10000014 -2.3555 0.57999998
0.10000014 -2.3555 0.60000002
0.10000014 -2.3555 0.62
0.10000014 -2.3555 0.63999999
0.10000014 -2.3555 0.66000003
0.10000014 -2.3555 0.68000001
0.10000014 -2.3555 0.69999999
0.10000014 -2.3555 0.72000003
0.10000014 -2.3555 0.74000001
0.10000014 -2.3555 0.75999999
0.10000014 -2.3555 0.77999997
2.24 -2.3555 0
2.24 -2.3555 0.02
2.24 -2.3555 0.039999999
2.24 -2.3555 0.059999999
2.24 -2.3555 0.079999998
2.24 -2.3555 0.1
2.24 -2.3555 0.12
2.24 -2.3555 0.14
2.24 -2.3555 0.16
2.24 -2.3555 0.18000001
2.24 -2.3555 0.2
2.24 -2.3555 0.22
2.24 -2.3555 0.23999999
2.24 -2.3555 0.25999999
2.24 -2.3555 0.28
2.24 -2.3555 0.30000001
2.24 -2.3555 0.31999999
2.24 -2.3555 0.34
2.24 -2.3555 0.36000001
2.24 -2.3555 0.38
2.24 -2.3555 0.40000001
2.24 -2.3555 0.41999999
2.24 -2.3555 0.44
2.24 -2.3555 0.46000001
2.24 -2.3555 0.47999999
2.24 -2.3555 0.5
2.24 -2.3555 0.51999998
2.24 -2.3555 0.54000002
2.24 -2.3555 0.56
2.24 -2.3555 0.57999998
2.24 -2.3555 0.60000002
2.24 -2.3555 0.62
2.24 -2.3555 0.63999999
2.24 -2.3555 0.66000003
2.24 -2.3555 0.68000001
2.24 -2.3555 0.69999999
2.24 -2.3555 0.72000003
2.24 -2.3555 0.74000001
2.24 -2.3555 0.75999999
2.24 -2.3555 0.77999997
-2.24 -2.3455 0
-2.24 -2.3455 0.02
-2.24 -2.3455 0.039999999
-2.24 -2.3455 0.059999999
-2.24 -2.3455 0.079999998
-2.24 -2.3455 0.1
-2.24 -2.3455 0.12
-2.24 -2.3455 0.14
-2.24 -2.3455 0.16
-2.24 -2.3455 0.18000001
-2.24 -2.3455 0.2
-2.24 -2.3455 0.22
-2.24 -2.3455 0.23999999
-2.24 -2.3455 0.25999999
-2.24 -2.3455 0.28
-2.24 -2.3455 0.30000001
-2.24 -2.3455 0.31999999
-2.24 -2.3455 0.34
-2.24 -2.3455 0.36000001
-2.24 -2.3455 0.38
-2.24 -2.3455 0.40000001
-2.24 -2.3455 0.41999999
-2.24 -2.3455 0.44
-2.24 -2.3455 0.46000001
-2.24 -2.3455 0.47999999
-2.24 -2.3455 0.5
-2.24 -2.3455 0.51999998
-2.24 -2.3455 0.54000002
-2.24 -2.3455 0.56
-2.24 -2.3455 0.57999998
-2.24 -2.3455 0.60000002
-2.24 -2.3455 0.62
-2.24 -2.3455 0.63999999
-2.24 -2.3455 0.66000003
-2.24 -2.3455 0.68000001
-2.24 -2.3455 0.69999999
-2.24 -2.3455 0.72000003
-2.24 -2.3455 0.74000001
-2.24 -2.3455 0.75999999
-2.24 -2.3455 0.77999997
-0.099999905 -2.3455 0
-0.099999905 -2.3455 0.02
-0.099999905 -2.3455 0.039999999
-0.099999905 -2.3455 0.059999999
-0.099999905 -2.3455 0.079999998
-0.099999905 -2.3455 0.1
-0.099999905 -2.3455 0.12
-0.099999905 -2.3455 0.14
-0.099999905 -2.3455 0.16
-0.099999905 -2.3455 0.18000001
-0.099999905 -2.3455 0.2
-0.099999905 -2.3455 0.22
-0.099999905 -2.3455 0.23999999
-0.099999905 -2.3455 0.25999999
-0.099999905 -2.3455 0.28
-0.099999905 -2.3455 0.30000001
-0.099999905 -2.3455 0.31999999
-0.099999905 -2.3455 0.34
-0.099999905 -2.3455 0.36000001
-0.099999905 -2.3455 0.38
-0.099999905 -2.3455 0.40000001
-0.099999905 -2.3455 0.41999999
-0.099999905 -2.3455 0.44
-0.099999905 -2.3455 0.46000001
-0.099999905 -2.3455 0.47999999
-0.099999905 -2.3455 0.5
-0.099999905 -2.3455 0.51999998
-0.099999905 -2.3455 0.54000002
-0.099999905 -2.3455 0.56
-0.099999905 -2.3455 0.57999998
-0.099999905 -2.3455 0.60000002
-0.099999905 -2.3455 0.62
-0.099999905 -2.3455 0.63999999
-0.099999905 -2.3455 0.66000003
-0.099999905 -2.3455 0.68000001
-0.099999905 -2.3455 0.69999999
-0.099999905 -2.3455 0.72000003
-0.099999905 -2.3455 0.74000001
-0.099999905 -2.3455 0.75999999
-0.099999905 -2.3455 0.77999997
0.10000014 -2.3455 0
0.10000014 -2.3455 0.02
0.10000014 -2.3455 0.039999999
0.10000014 -2.3455 0.059999999
0.10000014 -2.3455 0.079999998
0.10000014 -2.3455 0.1
0.10000014 -2.3455 0.12
0.10000014 -2.3455 0.14
0.10000014 -2.3455 0.16
0.10000014 -2.3455 0.18000001
0.10000014 -2.3455 0.2
0.10000014 -2.3455 0.22
0.10000014 -2.3455 0.23999999
0.10000014 -2.3455 0.25999999
0.10000014 -2.3455 0.28
0.10000014 -2.3455 0.30000001
0.10000014 -2.3455 0.31999999
0.10000014 -2.3455 0.34
0.10000014 -2.3455 0.36000001
0.10000014 -2.3455 0.38
0.10000014 -2.3455 0.40000001
0.10000014 -2.3455 0.41999999
0.10000014 -2.3455 0.44
0.10000014 -2.3455 0.46000001
0.10000014 -2.3455 0.47999999
0.10000014 -2.3455 0.5
0.10000014 -2.3455 0.51999998
0.10000014 -2.3455 0.54000002
0.10000014 -2.3455 0.56
0.10000014 -2.3455 0.57999998
0.10000014 -2.3455 0.60000002
0.10000014 -2.3455 0.62
0.10000014 -2.3455 0.63999999
0.10000014 -2.3455 0.66000003
0.10000014 -2.3455 0.68000001
0.10000014 -2.3455 0.69999999
0.10000014 -2.3455 0.72000003
0.10000014 -2.3455 0.74000001
0.10000014 -2.3455 0.75999999
0.10000014 -2.3455 0.77999997
2.24 -2.3455 0
2.24 -2.3455 0.02
2.24 -2.3455 0.039999999
2.24 -2.3455 0.059999999
2.24 -2.3455 0.079999998
2.24 -2.3455 0.1
2.24 -2.3455 0.12
2.24 -2.3455 0.14
2.24 -2.3455 0.16
2.24 -2.3455 0.18000001
2.24 -2.3455 0.2
2.24 -2.3455 0.22
2.24 -2.3455 0.23999999
2.24 -2.3455 0.25999999
2.24 -2.3455 0.28
2.24 -2.3455 0.30000001
2.24 -2.3455 0.31999999
2.24 -2.3455 0.34
2.24 -2.3455 0.36000001
2.24 -2.3455 0.38
2.24 -2.3455 0.40000001
2.24 -2.3455 0.41999999
2.24 -2.3455 0.44
2.24 -2.3455 0.46000001
2.24 -2.3455 0.47999999
2.24 -2.3455 0.5
2.24 -2.3455 0.51999998
2.24 -2.3455 0.54000002
2.24 -2.3455 0.56
2.24 -2.3455 0.57999998
2.24 -2.3455 0.60000002
2.24 -2.3455 0.62
2.24 -2.3455 0.63999999
2.24 -2.3455 0.66000003
2.24 -2.3455 0.68000001
2.24 -2.3455 0.69999999
2.24 -2.3455 0.72000003
2.24 -2.3455 0.74000001
2.24 -2.3455 0.75999999
2.24 -2.3455 0.77999997
-2.24 -2.3355 0
-2.24 -2.3355 0.02
-2.24 -2.3355 0.039999999
-2.24 -2.3355 0.059999999
-2.24 -2.3355 0.079999998
-2.24 -2.3355 0.1
-2.24 -2.3355 0.12
-2.24 -2.3355 0.14
-2.24 -2.3355 0.16
-2.24 -2.3355 0.18000001
-2.24 -2.3355 0.2
-2.24 -2.3355 0.22
-2.24 -2.3355 0.23999999
-2.24 -2.3355 0.25999999
-2.24 -2.3355 0.28
-2.24 -2.3355 0.30000001
-2.24 -2.3355 0.31999999
-2.24 -2.3355 0.34
-2.24 -2.3355 0.36000001
-2.24 -2.3355 0.38
-2.24 -2.3355 0.40000001
-2.24 -2.3355 0.41999999
-2.24 -2.3355 0.44
-2.24 -2.3355 0.46000001
-2.24 -2.3355 0.47999999
-2.24 -2.3355 0.5
-2.24 -2.3355 0.51999998
-2.24 -2.3355 0.54000002
-2.24 -2.3355 0.56
-2.24 -2.3355 0.57999998
-2.24 -2.3355 0.60000002
-2.24 -2.3355 0.62
-2.24 -2.3355 0.63999999
-2.24 -2.3355 0.66000003
-2.24 -2.3355 0.68000001
-2.24 -2.3355 0.69999999
-2.24 -2.3355 0.72000003
-2.24 -2.3355 0.74000001
-2.24 -2.3355 0.75999999
-2.24 -2.3355 0.77999997
-0.099999905 -2.3355 0
-0.099999905 -2.3355 0.02
-0.099999905 -2.3355 0.039999999
-0.099999905 -2.3355 0.059999999
-0.099999905 -2.3355 0.079999998
-0.099999905 -2.3355 0.1
-0.099999905 -2.3355 0.12
-0.099999905 -2.3355 0.14
-0.099999905 -2.3355 0.16
-0.099999905 -2.3355 0.18000001
-0.099999905 -2.3355 0.2
-0.099999905 -2.3355 0.22
-0.099999905 -2.3355 0.23999999
-0.099999905 -2.3355 0.25999999
-0.099999905 -2.3355 0.28
-0.099999905 -2.3355 0.30000001
-0.099999905 -2.3355 0.31999999
-0.099999905 -2.3355 0.34
-0.099999905 -2.3355 0.36000001
-0.099999905 -2.3355 0.38
-0.099999905 -2.3355 0.40000001
-0.099999905 -2.3355 0.41999999
-0.099999905 -2.3355 0.44
-0.099999905 -2.3355 0.46000001
-0.099999905 -2.3355 0.47999999
-0.099999905 -2.3355 0.5
-0.099999905 -2.3355 0.51999998
-0.099999905 -2.3355 0.54000002
-0.099999905 -2.3355 0.56
-0.099999905 -2.3355 0.57999998
-0.099999905 -2.3355 0.60000002
-0.099999905 -2.3355 0.62
-0.099999905 -2.3355 0.63999999
-0.099999905 -2.3355 0.66000003
-0.099999905 -2.3355 0.68000001
-0.099999905 -2.3355 0.69999999
-0.099999905 -2.3355 0.72000003
-0.099999905 -2.3355 0.74000001
-0.099999905 -2.3355 0.75999999
-0.099999905 -2.3355 0.77999997
0.10000014 -2.3355 0
0.10000014 -2.3355 0.02
0.10000014 -2.3355 0.039999999
0.10000014 -2.3355 0.059999999
0.10000014 -2.3355 0.079999998
0.10000014 -2.3355 0.1
0.10000014 -2.3355 0.12
0.10000014 -2.3355 0.14
0.10000014 -2.3355 0.16
0.10000014 -2.3355 0.18000001
0.10000014 -2.3355 0.2
0.10000014 -2.3355 0.22
0.10000014 -2.3355 0.23999999
0.10000014 -2.3355 0.25999999
0.10000014 -2.3355 0.28
0.10000014 -2.3355 0.30000001
0.10000014 -2.3355 0.31999999
0.10000014 -2.3355 0.34
0.10000014 -2.3355 0.36000001
0.10000014 -2.3355 0.38
0.10000014 -2.3355 0.40000001
0.10000014 -2.3355 0.41999999
0.10000014 -2.3355 0.44
0.10000014 -2.3355 0.46000001
0.10000014 -2.3355 0.47999999
0.10000014 -2.3355 0.5
0.10000014 -2.3355 0.51999998
0.10000014 -2.3355 0.54000002
0.10000014 -2.3355 0.56
0.10000014 -2.3355 0.57999998
0.10000014 -2.3355 0.60000002
0.10000014 -2.3355 0.62
0.10000014 -2.3355 0.63999999
0.10000014 -2.3355 0.66000003
0.10000014 -2.3355 0.68000001
0.10000014 -2.3355 0.69999999
0.10000014 -2.3355 0.72000003
0.10000014 -2.3355 0.74000001
0.10000014 -2.3355 0.75999999
0.10000014 -2.3355 0.77999997
2.24 -2.3355 0
2.24 -2.3355 0.02
2.24 -2.3355 0.039999999
2.24 -2.3355 0.059999999
2.24 -2.3355 0.079999998
2.24 -2.3355 0.1
2.24 -2.3355 0.12
2.24 -2.3355 0.14
2.24 -2.3355 0.16
2.24 -2.3355 0.18000001
2.24 -2.3355 0.2
2.24 -2.3355 0.22
2.24 -2.3355 0.23999999
2.24 -2.3355 0.25999999
2.24 -2.3355 0.28
2.24 -2.3355 0.30000001
2.24 -2.3355 0.31999999
2.24 -2.3355 0.34
2.24 -2.3355 0.36000001
2.24 -2.3355 0.38
2.24 -2.3355 0.40000001
2.24 -2.3355 0.41999999
2.24 -2.3355 0.44
2.24 -2.3355 0.46000001
2.24 -2.3355 0.47999999
2.24 -2.3355 0.5
2.24 -2.3355 0.51999998
2.24 -2.3355 0.54000002
2.24 -2.3355 0.56
2.24 -2.3355 0.57999998
2.24 -2.3355 0.60000002
2.24 -2.3355 0.62
2.24 -2.3355 0.63999999
2.24 -2.3355 0.66000003
2.24 -2.3355 0.68000001
2.24 -2.3355 0.69999999
2.24 -2.3355 0.72000003
2.24 -2.3355 0.74000001
2.24 -2.3355 0.75999999
2.24 -2.3355 0.77999997
-2.24 -2.3255 0
-2.24 -2.3255 0.02
-2.24 -2.3255 0.039999999
-2.24 -2.3255 0.059999999
-2.24 -2.3255 0.079999998
-2.24 -2.3255 0.1
-2.24 -2.3255 0.12
-2.24 -2.3255 0.14
-2.24 -2.3255 0.16
-2.24 -2.3255 0.18000001
-2.24 -2.3255 0.2
-2.24 -2.3255 0.22
-2.24 -2.3255 0.23999999
-2.24 -2.3255 0.25999999
-2.24 -2.3255 0.28
-2.24 -2.3255 0.30000001
-2.24 -2.3255 0.31999999
-2.24 -2.3255 0.34
-2.24 -2.3255 0.36000001
-2.24 -2.3255 0.38
-2.24 -2.3255 0.40000001
-2.24 -2.3255 0.41999999
-2.24 -2.3255 0.44
-2.24 -2.3255 0.46000001
-2.24 -2.3255 0.47999999
-2.24 -2.3255 0.5
-2.24 -2.3255 0.51999998
-2.24 -2.3255 0.54000002
-2.24 -2.3255 0.56
-2.24 -2.3255 0.57999998
-2.24 -2.3255 0.60000002
-2.24 -2.3255 0.62
-2.24 -2.3255 0.63999999
-2.24 -2.3255 0.66000003
-2.24 -2.3255 0.68000001
-2.24 -2.3255 0.69999999
-2.24 -2.3255 0.72000003
-2.24 -2.3255 0.74000001
-2.24 -2.3255 0.75999999
-2.24 -2.3255 0.77999997
-0.099999905 -2.3255 0
-0.099999905 -2.3255 0.02
-0.099999905 -2.3255 0.039999999
-0.099999905 -2.3255 0.059999999
-0.099999905 -2.3255 0.079999998
-0.099999905 -2.3255 0.1
-0.099999905 -2.3255 0.12
-0.099999905 -2.3255 0.14
-0.099999905 -2.3255 0.16
-0.099999905 -2.3255 0.18000001
-0.099999905 -2.3255 0.2
-0.099999905 -2.3255 0.22
-0.099999905 -2.3255 0.23999999
-0.099999905 -2.3255 0.25999999
-0.099999905 -2.3255 0.28
-0.099999905 -2.3255 0.30000001
-0.099999905 -2.3255 0.31999999
-0.099999905 -2.3255 0.34
-0.099999905 -2.3255 0.36000001
-0.099999905 -2.3255 0.38
-0.099999905 -2.3255 0.40000001
-0.099999905 -2.3255 0.41999999
-0.099999905 -2.3255 0.44
-0.099999905 -2.3255 0.46000001
-0.099999905 -2.3255 0.47999999
-0.099999905 -2.3255 0.5
-0.099999905 -2.3255 0.51999998
-0.099999905 -2.3255 0.54000002
-0.099999905 -2.3255 0.56
-0.099999905 -2.3255 0.57999998
-0.099999905 -2.3255 0.60000002
-0.099999905 -2.3255 0.62
-0.099999905 -2.3255 0.63999999
-0.099999905 -2.3255 0.66000003
-0.099999905 -2.3255 0.68000001
-0.099999905 -2.3255 0.69999999
-0.099999905 -2.3255 0.72000003
-0.099999905 -2.3255 0.74000001
-0.099999905 -2.3255 0.75999999
-0.099999905 -2.3255 0.77999997
0.10000014 -2.3255 0
0.10000014 -2.3255 0.02
0.10000014 -2.3255 0.039999999
0.10000014 -2.3255 0.059999999
0.10000014 -2.3255 0.079999998
0.10000014 -2.3255 0.1
0.10000014 -2.3255 0.12
0.10000014 -2.3255 0.14
0.10000014 -2.3255 0.16
0.10000014 -2.3255 0.18000001
0.10000014 -2.3255 0.2
0.10000014 -2.3255 0.22
0.10000014 -2.3255 0.23999999
0.10000014 -2.3255 0.25999999
0.10000014 -2.3255 0.28
0.10000014 -2.3255 0.30000001
0.10000014 -2.3255 0.31999999
0.10000014 -2.3255 0.34
0.10000014 -2.3255 0.36000001
0.10000014 -2.3255 0.38
0.10000014 -2.3255 0.40000001
0.10000014 -2.3255 0.41999999
0.10000014 -2.3255 0.44
0.10000014 -2.3255 0.46000001
0.10000014 -2.3255 0.47999999
0.10000014 -2.3255 0.5
0.10000014 -2.3255 0.51999998
0.10000014 -2.3255 0.54000002
0.10000014 -2.3255 0.56
0.10000014 -2.3255 0.57999998
0.10000014 -2.3255 0.60000002
0.10000014 -2.3255 0.62
0.10000014 -2.3255 0.63999999
0.10000014 -2.3255 0.66000003
0.10000014 -2.3255 0.68000001
0.10000014 -2.3255 0.69999999
0.10000014 -2.3255 0.72000003
0.10000014 -2.3255 0.74000001
0.10000014 -2.3255 0.75999999
0.10000014 -2.3255 0.77999997
2.24 -2.3255 0
2.24 -2.3255 0.02
2.24 -2.3255 0.039999999
2.24 -2.3255 0.059999999
2.24 -2.3255 0.079999998
2.24 -2.3255 0.1
2.24 -2.3255 0.12
2.24 -2.3255 0.14
2.24 -2.3255 0.16
2.24 -2.3255 0.18000001
2.24 -2.3255 0.2
2.24 -2.3255 0.22
2.24 -2.3255 0.23999999
2.24 -2.3255 0.25999999
2.24 -2.3255 0.28
2.24 -2.3255 0.30000001
2.24 -2.3255 0.31999999
2.24 -2.3255 0.34
2.24 -2.3255 0.36000001
2.24 -2.3255 0.38
2.24 -2.3255 0.40000001
2.24 -2.3255 0.41999999
2.24 -2.3255 0.44
2.24 -2.3255 0.46000001
2.24 -2.3255 0.47999999
2.24 -2.3255 0.5
2.24 -2.3255 0.51999998
2.24 -2.3255 0.54000002
2.24 -2.3255 0.56
2.24 -2.3255 0.57999998
2.24 -2.3255 0.60000002
2.24 -2.3255 0.62
2.24 -2.3255 0.63999999
2.24 -2.3255 0.66000003
2.24 -2.3255 0.68000001
2.24 -2.3255 0.69999999
2.24 -2.3255 0.72000003
2.24 -2.3255 0.74000001
2.24 -2.3255 0.75999999
2.24 -2.3255 0.77999997
-2.24 -2.3154998 0
-2.24 -2.3154998 0.02
-2.24 -2.3154998 0.039999999
-2.24 -2.3154998 0.059999999
-2.24 -2.3154998 0.079999998
-2.24 -2.3154998 0.1
-2.24 -2.3154998 0.12
-2.24 -2.3154998 0.14
-2.24 -2.3154998 0.16
-2.24 -2.3154998 0.18000001
-2.24 -2.3154998 0.2
-2.24 -2.3154998 0.22
-2.24 -2.3154998 0.23999999
-2.24 -2.3154998 0.25999999
-2.24 -2.3154998 0.28
-2.24 -2.3154998 0.30000001
-2.24 -2.3154998 0.31999999
-2.24 -2.3154998 0.34
-2.24 -2.3154998 0.36000001
-2.24 -2.3154998 0.38
-2.24 -2.3154998 0.40000001
-2.24 -2.3154998 0.41999999
-2.24 -2.3154998 0.44
-2.24 -2.3154998 0.46000001
-2.24 -2.3154998 0.47999999
-2.24 -2.3154998 0.5
-2.24 -2.3154998 0.51999998
-2.24 -2.3154998 0.54000002
-2.24 -2.3154998 0.56
-2.24 -2.3154998 0.57999998
-2.24 -2.3154998 0.60000002
-2.24 -2.3154998 0.62
-2.24 -2.3154998 0.63999999
-2.24 -2.3154998 0.66000003
-2.24 -2.3154998 0.68000001
-2.24 -2.3154998 0.69999999
-2.24 -2.3154998 0.72000003
-2.24 -2.3154998 0.74000001
-2.24 -2.3154998 0.75999999
-2.24 -2.3154998 0.77999997
-0.099999905 -2.3154998 0
-0.099999905 -2.3154998 0.02
-0.099999905 -2.3154998 0.039999999
-0.099999905 -2.3154998 0.059999999
-0.099999905 -2.3154998 0.079999998
-0.099999905 -2.3154998 0.1
-0.099999905 -2.3154998 0.12
-0.099999905 -2.3154998 0.14
-0.099999905 -2.3154998 0.16
-0.099999905 -2.3154998 0.18000001
-0.099999905 -2.3154998 0.2
-0.099999905 -2.3154998 0.22
-0.099999905 -2.3154998 0.23999999
-0.099999905 -2.3154998 0.25999999
-0.099999905 -2.3154998 0.28
-0.099999905 -2.3154998 0.30000001
-0.099999905 -2.3154998 0.31999999
-0.099999905 -2.3154998 0.34
-0.099999905 -2.3154998 0.36000001
-0.099999905 -2.3154998 0.38
-0.099999905 -2.3154998 0.40000001
-0.099999905 -2.3154998 0.41999999
-0.099999905 -2.3154998 0.44
-0.099999905 -2.3154998 0.46000001
-0.099999905 -2.3154998 0.47999999
-0.099999905 -2.3154998 0.5
-0.099999905 -2.3154998 0.51999998
-0.099999905 -2.3154998 0.54000002
-0.099999905 -2.3154998 0.56
-0.099999905 -2.3154998 0.57999998
-0.099999905 -2.3154998 0.60000002
-0.099999905 -2.3154998 0.62
-0.099999905 -2.3154998 0.63999999
-0.099999905 -2.3154998 0.66000003
-0.099999905 -2.3154998 0.68000001
-0.099999905 -2.3154998 0.69999999
-0.099999905 -2.3154998 0.72000003
-0.099999905 -2.3154998 0.74000001
-0.099999905 -2.3154998 0.75999999
-0.099999905 -2.3154998 0.77999997
0.10000014 -2.3155 0
0.10000014 -2.3155 0.02
0.10000014 -2.3155 0.039999999
0.10000014 -2.3155 0.059999999
0.10000014 -2.3155 0.079999998
0.10000014 -2.3155 0.1
0.10000014 -2.3155 0.12
0.10000014 -2.3155 0.14
0.10000014 -2.3155 0.16
0.10000014 -2.3155 0.18000001
0.10000014 -2.3155 0.2
0.10000014 -2.3155 0.22
0.10000014 -2.3155 0.23999999
0.10000014 -2.3155 0.25999999
0.10000014 -2.3155 0.28
0.10000014 -2.3155 0.30000001
0.10000014 -2.3155 0.31999999
0.10000014 -2.3155 0.34
0.10000014 -2.3155 0.36000001
0.10000014 -2.3155 0.38
0.10000014 -2.3155 0.40000001
0.10000014 -2.3155 0.41999999
0.10000014 -2.3155 0.44
0.10000014 -2.3155 0.46000001
0.10000014 -2.3155 0.47999999
0.10000014 -2.3155 0.5
0.10000014 -2.3155 0.51999998
0.10000014 -2.3155 0.54000002
0.10000014 -2.3155 0.56
0.10000014 -2.3155 0.57999998
0.10000014 -2.3155 0.60000002
0.10000014 -2.3155 0.62
0.10000014 -2.3155 0.63999999
0.10000014 -2.3155 0.66000003
0.10000014 -2.3155 0.68000001
0.10000014 -2.3155 0.69999999
0.10000014 -2.3155 0.72000003
0.10000014 -2.3155 0.74000001
0.10000014 -2.3155 0.75999999
0.10000014 -2.3155 0.77999997
2.24 -2.3154998 0
2.24 -2.3154998 0.02
2.24 -2.3154998 0.039999999
2.24 -2.3154998 0.059999999
2.24 -2.3154998 0.079999998
2.24 -2.3154998 0.1
2.24 -2.3154998 0.12
2.24 -2.3154998 0.14
2.24 -2.3154998 0.16
2.24 -2.3154998 0.18000001
2.24 -2.3154998 0.2
2.24 -2.3154998 0.22
2.24 -2.3154998 0.23999999
2.24 -2.3154998 0.25999999
2.24 -2.3154998 0.28
2.24 -2.3154998 0.30000001
2.24 -2.3154998 0.31999999
2.24 -2.3154998 0.34
2.24 -2.3154998 0.36000001
2.24 -2.3154998 0.38
2.24 -2.3154998 0.40000001
2.24 -2.3154998 0.41999999
2.24 -2.3154998 0.44
2.24 -2.3154998 0.46000001
2.24 -2.3154998 0.47999999
2.24 -2.3154998 0.5
2.24 -2.3154998 0.51999998
2.24 -2.3154998 0.54000002
2.24 -2.3154998 0.56
2.24 -2.3154998 0.57999998
2.24 -2.3154998 0.60000002
2.24 -2.3154998 0.62
2.24 -2.3154998 0.63999999
2.24 -2.3154998 0.66000003
2.24 -2.3154998 0.68000001
2.24 -2.3154998 0.69999999
2.24 -2.3154998 0.72000003
2.24 -2.3154998 0.74000001
2.24 -2.3154998 0.75999999
2.24 -2.3154998 0.77999997
-2.24 -2.3054998 0
-2.24 -2.3054998 0.02
-2.24 -2.3054998 0.039999999
-2.24 -2.3054998 0.059999999
-2.24 -2.3054998 0.079999998
-2.24 -2.3054998 0.1
-2.24 -2.3054998 0.12
-2.24 -2.3054998 0.14
-2.24 -2.3054998 0.16
-2.24 -2.3054998 0.18000001
-2.24 -2.3054998 0.2
-2.24 -2.3054998 0.22
-2.24 -2.3054998 0.23999999
-2.24 -2.3054998 0.25999999
-2.24 -2.3054998 0.28
-2.24 -2.3054998 0.30000001
-2.24 -2.3054998 0.31999999
-2.24 -2.3054998 0.34
-2.24 -2.3054998 0.36000001
-2.24 -2.3054998 0.38
-2.24 -2.3054998 0.40000001
-2.24 -2.3054998 0.41999999
-2.24 -2.3054998 0.44
-2.24 -2.3054998 0.46000001
-2.24 -2.3054998 0.47999999
-2.24 -2.3054998 0.5
-2.24 -2.3054998 0.51999998
-2.24 -2.3054998 0.54000002
-2.24 -2.3054998 0.56
-2.24 -2.3054998 0.57999998
-2.24 -2.3054998 0.60000002
-2.24 -2.3054998 0.62
-2.24 -2.3054998 0.63999999
-2.24 -2.3054998 0.66000003
-2.24 -2.3054998 0.68000001
-2.24 -2.3054998 0.69999999
-2.24 -2.3054998 0.72000003
-2.24 -2.3054998 0.74000001
-2.24 -2.3054998 0.75999999
-2.24 -2.3054998 0.77999997
-0.099999905 -2.3055 0
-0.099999905 -2.3055 0.02
-0.099999905 -2.3055 0.039999999
-0.099999905 -2.3055 0.059999999
-0.099999905 -2.3055 0.079999998
-0.099999905 -2.3055 0.1
-0.099999905 -2.3055 0.12
-0.099999905 -2.3055 0.14
-0.099999905 -2.3055 0.16
-0.099999905 -2.3055 0.18000001
-0.099999905 -2.3055 0.2
-0.099999905 -2.3055 0.22
-0.099999905 -2.3055 0.23999999
-0.099999905 -2.3055 0.25999999
-0.099999905 -2.3055 0.28
-0.099999905 -2.3055 0.30000001
-0.099999905 -2.3055 0.31999999
-0.099999905 -2.3055 0.34
-0.099999905 -2.3055 0.36000001
-0.099999905 -2.3055 0.38
-0.099999905 -2.3055 0.40000001
-0.099999905 -2.3055 0.41999999
-0.099999905 -2.3055 0.44
-0.099999905 -2.3055 0.46000001
-0.099999905 -2.3055 0.47999999
-0.099999905 -2.3055 0.5
-0.099999905 -2.3055 0.51999998
-0.099999905 -2.3055 0.54000002
-0.099999905 -2.3055 0.56
-0.099999905 -2.3055 0.57999998
-0.099999905 -2.3055 0.60000002
-0.099999905 -2.3055 0.62
-0.099999905 -2.3055 0.63999999
-0.099999905 -2.3055 0.66000003
-0.099999905 -2.3055 0.68000001
-0.099999905 -2.3055 0.69999999
-0.099999905 -2.3055 0.72000003
-0.099999905 -2.3055 0.74000001
-0.099999905 -2.3055 0.75999999
-0.099999905 -2.3055 0.77999997
0.10000014 -2.3054998 0
0.10000014 -2.3054998 0.02
0.10000014 -2.3054998 0.039999999
0.10000014 -2.3054998 0.059999999
0.10000014 -2.3054998 0.079999998
0.10000014 -2.3054998 0.1
0.10000014 -2.3054998 0.12
0.10000014 -2.3054998 0.14
0.10000014 -2.3054998 0.16
0.10000014 -2.3054998 0.18000001
0.10000014 -2.3054998 0.2
0.10000014 -2.3054998 0.22
0.10000014 -2.3054998 0.23999999
0.10000014 -2.3054998 0.25999999
0.10000014 -2.3054998 0.28
0.10000014 -2.3054998 0.30000001
0.10000014 -2.3054998 0.31999999
0.10000014 -2.3054998 0.34
0.10000014 -2.3054998 0.36000001
0.10000014 -2.3054998 0.38
0.10000014 -2.3054998 0.40000001
0.10000014 -2.3054998 0.41999999
0.10000014 -2.3054998 0.44
0.10000014 -2.3054998 0.46000001
0.10000014 -2.3054998 0.47999999
0.10000014 -2.3054998 0.5
0.10000014 -2.3054998 0.51999998
0.10000014 -2.3054998 0.54000002
0.10000014 -2.3054998 0.56
0.10000014 -2.3054998 0.57999998
0.10000014 -2.3054998 0.60000002
0.10000014 -2.3054998 0.62
0.10000014 -2.3054998 0.63999999
0.10000014 -2.3054998 0.66000003
0.10000014 -2.3054998 0.68000001
0.10000014 -2.3054998 0.69999999
0.10000014 -2.3054998 0.72000003
0.10000014 -2.3054998 0.74000001
0.10000014 -2.3054998 0.75999999
0.10000014 -2.3054998 0.77999997
2.24 -2.3055 0
2.24 -2.3055 0.02
2.24 -2.3055 0.039999999
2.24 -2.3055 0.059999999
2.24 -2.3055 0.079999998
2.24 -2.3055 0.1
2.24 -2.3055 0.12
2.24 -2.3055 0.14
2.24 -2.3055 0.16
2.24 -2.3055 0.18000001
2.24 -2.3055 0.2
2.24 -2.3055 0.22
2.24 -2.3055 0.23999999
2.24 -2.3055 0.25999999
2.24 -2.3055 0.28
2.24 -2.3055 0.30000001
2.24 -2.3055 0.31999999
2.24 -2.3055 0.34
2.24 -2.3055 0.36000001
2.24 -2.3055 0.38
2.24 -2.3055 0.40000001
2.24 -2.3055 0.41999999
2.24 -2.3055 0.44
2.24 -2.3055 0.46000001
2.24 -2.3055 0.47999999
2.24 -2.3055 0.5
2.24 -2.3055 0.51999998
2.24 -2.3055 0.54000002
2.24 -2.3055 0.56
2.24 -2.3055 0.57999998
2.24 -2.3055 0.60000002
2.24 -2.3055 0.62
2.24 -2.3055 0.63999999
2.24 -2.3055 0.66000003
2.24 -2.3055 0.68000001
2.24 -2.3055 0.69999999
2.24 -2.3055 0.72000003
2.24 -2.3055 0.74000001
2.24 -2.3055 0.75999999
2.24 -2.3055 0.77999997
-2.24 -2.2955 0
-2.24 -2.2955 0.02
-2.24 -2.2955 0.039999999
-2.24 -2.2955 0.059999999
-2.24 -2.2955 0.079999998
-2.24 -2.2955 0.1
-2.24 -2.2955 0.12
-2.24 -2.2955 0.14
-2.24 -2.2955 0.16
-2.24 -2.2955 0.18000001
-2.24 -2.2955 0.2
-2.24 -2.2955 0.22
-2.24 -2.2955 0.23999999
-2.24 -2.2955 0.25999999
-2.24 -2.2955 0.28
-2.24 -2.2955 0.30000001
-2.24 -2.2955 0.31999999
-2.24 -2.2955 0.34
-2.24 -2.2955 0.36000001
-2.24 -2.2955 0.38
-2.24 -2.2955 0.40000001
-2.24 -2.2955 0.41999999
-2.24 -2.2955 0.44
-2.24 -2.2955 0.46000001
-2.24 -2.2955 0.47999999
-2.24 -2.2955 0.5
-2.24 -2.2955 0.51999998
-2.24 -2.2955 0.54000002
-2.24 -2.2955 0.56
-2.24 -2.2955 0.57999998
-2.24 -2.2955 0.60000002
-2.24 -2.2955 0.62
-2.24 -2.2955 0.63999999
-2.24 -2.2955 0.66000003
-2.24 -2.2955 0.68000001
-2.24 -2.2955 0.69999999
-2.24 -2.2955 0.72000003
-2.24 -2.2955 0.74000001
-2.24 -2.2955 0.75999999
-2.24 -2.2955 0.77999997
-0.099999905 -2.2955 0
-0.099999905 -2.2955 0.02
-0.099999905 -2.2955 0.039999999
-0.099999905 -2.2955 0.059999999
-0.099999905 -2.2955 0.079999998
-0.099999905 -2.2955 0.1
-0.099999905 -2.2955 0.12
-0.099999905 -2.2955 0.14
-0.099999905 -2.2955 0.16
-0.099999905 -2.2955 0.18000001
-0.099999905 -2.2955 0.2
-0.099999905 -2.2955 0.22
-0.099999905 -2.2955 0.23999999
-0.099999905 -2.2955 0.25999999
-0.099999905 -2.2955 0.28
-0.099999905 -2.2955 0.30000001
-0.099999905 -2.2955 0.31999999
-0.099999905 -2.2955 0.34
-0.099999905 -2.2955 0.36000001
-0.099999905 -2.2955 0.38
-0.099999905 -2.2955 0.40000001
-0.099999905 -2.2955 0.41999999
-0.099999905 -2.2955 0.44
-0.099999905 -2.2955 0.46000001
-0.099999905 -2.2955 0.47999999
-0.099999905 -2.2955 0.5
-0.099999905 -2.2955 0.51999998
-0.099999905 -2.2955 0.54000002
-0.099999905 -2.2955 0.56
-0.099999905 -2.2955 0.57999998
-0.099999905 -2.2955 0.60000002
-0.099999905 -2.2955 0.62
-0.099999905 -2.2955 0.63999999
-0.099999905 -2.2955 0.66000003
-0.099999905 -2.2955 0.68000001
-0.099999905 -2.2955 0.69999999
-0.099999905 -2.2955 0.72000003
-0.099999905 -2.2955 0.74000001
-0.099999905 -2.2955 0.75999999
-0.099999905 -2.2955 0.77999997
0.10000014 -2.2955 0
0.10000014 -2.2955 0.02
0.10000014 -2.2955 0.039999999
0.10000014 -2.2955 0.059999999
0.10000014 -2.2955 0.079999998
0.10000014 -2.2955 0.1
0.10000014 -2.2955 0.12
0.10000014 -2.2955 0.14
0.10000014 -2.2955 0.16
0.10000014 -2.2955 0.18000001
0.10000014 -2.2955 0.2
0.10000014 -2.2955 0.22
0.10000014 -2.2955 0.23999999
0.10000014 -2.2955 0.25999999
0.10000014 -2.2955 0.28
0.10000014 -2.2955 0.30000001
0.10000014 -2.2955 0.31999999
0.10000014 -2.2955 0.34
0.10000014 -2.2955 0.36000001
0.10000014 -2.2955 0.38
0.10000014 -2.2955 0.40000001
0.10000014 -2.2955 0.41999999
0.10000014 -2.2955 0.44
0.10000014 -2.2955 0.46000001
0.10000014 -2.2955 0.47999999
0.10000014 -2.2955 0.5
0.10000014 -2.2955 0.51999998
0.10000014 -2.2955 0.54000002
0.10000014 -2.2955 0.56
0.10000014 -2.2955 0.57999998
0.10000014 -2.2955 0.60000002
0.10000014 -2.2955 0.62
0.10000014 -2.2955 0.63999999
0.10000014 -2.2955 0.66000003
0.10000014 -2.2955 0.68000001
0.10000014 -2.2955 0.69999999
0.10000014 -2.2955 0.72000003
0.10000014 -2.2955 0.74000001
0.10000014 -2.2955 0.75999999
0.10000014 -2.2955 0.77999997
2.24 -2.2955 0
2.24 -2.2955 0.02
2.24 -2.2955 0.039999999
2.24 -2.2955 0.059999999
2.24 -2.2955 0.079999998
2.24 -2.2955 0.1
2.24 -2.2955 0.12
2.24 -2.2955 0.14
2.24 -2.2955 0.16
2.24 -2.2955 0.18000001
2.24 -2.2955 0.2
2.24 -2.2955 0.22
2.24 -2.2955 0.23999999
2.24 -2.2955 0.25999999
2.24 -2.2955 0.28
2.24 -2.2955 0.30000001
2.24 -2.2955 0.31999999
2.24 -2.2955 0.34
2.24 -2.2955 0.36000001
2.24 -2.2955 0.38
2.24 -2.2955 0.40000001
2.24 -2.2955 0.41999999
2.24 -2.2955 0.44
2.24 -2.2955 0.46000001
2.24 -2.2955 0.47999999
2.24 -2.2955 0.5
2.24 -2.2955 0.51999998
2.24 -2.2955 0.54000002
2.24 -2.2955 0.56
2.24 -2.2955 0.57999998
2.24 -2.2955 0.60000002
2.24 -2.2955 0.62
2.24 -2.2955 0.63999999
2.24 -2.2955 0.66000003
2.24 -2.2955 0.68000001
2.24 -2.2955 0.69999999
2.24 -2.2955 0.72000003
2.24 -2.2955 0.74000001
2.24 -2.2955 0.75999999
2.24 -2.2955 0.77999997
-2.24 -2.2855 0
-2.24 -2.2855 0.02
-2.24 -2.2855 0.039999999
-2.24 -2.2855 0.059999999
-2.24 -2.2855 0.079999998
-2.24 -2.2855 0.1
-2.24 -2.2855 0.12
-2.24 -2.2855 0.14
-2.24 -2.2855 0.16
-2.24 -2.2855 0.18000001
-2.24 -2.2855 0.2
-2.24 -2.2855 0.22
-2.24 -2.2855 0.23999999
-2.24 -2.2855 0.25999999
-2.24 -2.2855 0.28
-2.24 -2.2855 0.30000001
-2.24 -2.2855 0.31999999
-2.24 -2.2855 0.34
-2.24 -2.2855 0.36000001
-2.24 -2.2855 0.38
-2.24 -2.2855 0.40000001
-2.24 -2.2855 0.41999999
-2.24 -2.2855 0.44
-2.24 -2.2855 0.46000001
-2.24 -2.2855 0.47999999
-2.24 -2.2855 0.5
-2.24 -2.2855 0.51999998
-2.24 -2.2855 0.54000002
-2.24 -2.2855 0.56
-2.24 -2.2855 0.57999998
-2.24 -2.2855 0.60000002
-2.24 -2.2855 0.62
-2.24 -2.2855 0.63999999
-2.24 -2.2855 0.66000003
-2.24 -2.2855 0.68000001
-2.24 -2.2855 0.69999999
-2.24 -2.2855 0.72000003
-2.24 -2.2855 0.74000001
-2.24 -2.2855 0.75999999
-2.24 -2.2855 0.77999997
-0.099999905 -2.2855 0
-0.099999905 -2.2855 0.02
-0.099999905 -2.2855 0.039999999
-0.099999905 -2.2855 0.059999999
-0.099999905 -2.2855 0.079999998
-0.099999905 -2.2855 0.1
-0.099999905 -2.2855 0.12
-0.099999905 -2.2855 0.14
-0.099999905 -2.2855 0.16
-0.099999905 -2.2855 0.18000001
-0.099999905 -2.2855 0.2
-0.099999905 -2.2855 0.22
-0.099999905 -2.2855 0.23999999
-0.099999905 -2.2855 0.25999999
-0.099999905 -2.2855 0.28
-0.099999905 -2.2855 0.30000001
-0.099999905 -2.2855 0.31999999
-0.099999905 -2.2855 0.34
-0.099999905 -2.2855 0.36000001
-0.099999905 -2.2855 0.38
-0.099999905 -2.2855 0.40000001
-0.099999905 -2.2855 0.41999999
-0.099999905 -2.2855 0.44
-0.099999905 -2.2855 0.46000001
-0.099999905 -2.2855 0.47999999
-0.099999905 -2.2855 0.5
-0.099999905 -2.2855 0.51999998
-0.099999905 -2.2855 0.54000002
-0.099999905 -2.2855 0.56
-0.099999905 -2.2855 0.57999998
-0.099999905 -2.2855 0.60000002
-0.099999905 -2.2855 0.62
-0.099999905 -2.2855 0.63999999
-0.099999905 -2.2855 0.66000003
-0.099999905 -2.2855 0.68000001
-0.099999905 -2.2855 0.69999999
-0.099999905 -2.2855 0.72000003
-0.099999905 -2.2855 0.74000001
-0.099999905 -2.2855 0.75999999
-0.099999905 -2.2855 0.77999997
0.10000014 -2.2855 0
0.10000014 -2.2855 0.02
0.10000014 -2.2855 0.039999999
0.10000014 -2.2855 0.059999999
0.10000014 -2.2855 0.079999998
0.10000014 -2.2855 0.1
0.10000014 -2.2855 0.12
0.10000014 -2.2855 0.14
0.10000014 -2.2855 0.16
0.10000014 -2.2855 0.18000001
0.10000014 -2.2855 0.2
0.10000014 -2.2855 0.22
0.10000014 -2.2855 0.23999999
0.10000014 -2.2855 0.25999999
0.10000014 -2.2855 0.28
0.10000014 -2.2855 0.30000001
0.10000014 -2.2855 0.31999999
0.10000014 -2.2855 0.34
0.10000014 -2.2855 0.36000001
0.10000014 -2.2855 0.38
0.10000014 -2.2855 0.40000001
0.10000014 -2.2855 0.41999999
0.10000014 -2.2855 0.44
0.10000014 -2.2855 0.46000001
0.10000014 -2.2855 0.47999999
0.10000014 -2.2855 0.5
0.10000014 -2.2855 0.51999998
0.10000014 -2.2855 0.54000002
0.10000014 -2.2855 0.56
0.10000014 -2.2855 0.57999998
0.10000014 -2.2855 0.60000002
0.10000014 -2.2855 0.62
0.10000014 -2.2855 0.63999999
0.10000014 -2.2855 0.66000003
0.10000014 -2.2855 0.68000001
0.10000014 -2.2855 0.69999999
0.10000014 -2.2855 0.72000003
0.10000014 -2.2855 0.74000001
0.10000014 -2.2855 0.75999999
0.10000014 -2.2855 0.77999997
2.24 -2.2855 0
2.24 -2.2855 0.02
2.24 -2.2855 0.039999999
2.24 -2.2855 0.059999999
2.24 -2.2855 0.079999998
2.24 -2.2855 0.1
2.24 -2.2855 0.12
2.24 -2.2855 0.14
2.24 -2.2855 0.16
2.24 -2.2855 0.18000001
2.24 -2.2855 0.2
2.24 -2.2855 0.22
2.24 -2.2855 0.23999999
2.24 -2.2855 0.25999999
2.24 -2.2855 0.28
2.24 -2.2855 0.30000001
2.24 -2.2855 0.31999999
2.24 -2.2855 0.34
2.24 -2.2855 0.36000001
2.24 -2.2855 0.38
2.24 -2.2855 0.40000001
2.24 -2.2855 0.41999999
2.24 -2.2855 0.44
2.24 -2.2855 0.46000001
2.24 -2.2855 0.47999999
2.24 -2.2855 0.5
2.24 -2.2855 0.51999998
2.24 -2.2855 0.54000002
2.24 -2.2855 0.56
2.24 -2.2855 0.57999998
2.24 -2.2855 0.60000002
2.24 -2.2855 0.62
2.24 -2.2855 0.63999999
2.24 -2.2855 0.66000003
2.24 -2.2855 0.68000001
2.24 -2.2855 0.69999999
2.24 -2.2855 0.72000003
2.24 -2.2855 0.74000001
2.24 -2.2855 0.75999999
2.24 -2.2855 0.77999997
-2.24 -2.2754998 0
-2.24 -2.2754998 0.02
-2.24 -2.2754998 0.039999999
-2.24 -2.2754998 0.059999999
-2.24 -2.2754998 0.079999998
-2.24 -2.2754998 0.1
-2.24 -2.2754998 0.12
-2.24 -2.2754998 0.14
-2.24 -2.2754998 0.16
-2.24 -2.2754998 0.18000001
-2.24 -2.2754998 0.2
-2.24 -2.2754998 0.22
-2.24 -2.2754998 0.23999999
-2.24 -2.2754998 0.25999999
-2.24 -2.2754998 0.28
-2.24 -2.2754998 0.30000001
-2.24 -2.2754998 0.31999999
-2.24 -2.2754998 0.34
-2.24 -2.2754998 0.36000001
-2.24 -2.2754998 0.38
-2.24 -2.2754998 0.40000001
-2.24 -2.2754998 0.41999999
-2.24 -2.2754998 0.44
-2.24 -2.2754998 0.46000001
-2.24 -2.2754998 0.47999999
-2.24 -2.2754998 0.5
-2.24 -2.2754998 0.51999998
-2.24 -2.2754998 0.54000002
-2.24 -2.2754998 0.56
-2.24 -2.2754998 0.57999998
-2.24 -2.2754998 0.60000002
-2.24 -2.2754998 0.62
-2.24 -2.2754998 0.63999999
-2.24 -2.2754998 0.66000003
-2.24 -2.2754998 0.68000001
-2.24 -2.2754998 0.69999999
-2.24 -2.2754998 0.72000003
-2.24 -2.2754998 0.74000001
-2.24 -2.2754998 0.75999999
-2.24 -2.2754998 0.77999997
-0.099999905 -2.2754998 0
-0.099999905 -2.2754998 0.02
-0.099999905 -2.2754998 0.039999999
-0.099999905 -2.2754998 0.059999999
-0.099999905 -2.2754998 0.079999998
-0.099999905 -2.2754998 0.1
-0.099999905 -2.2754998 0.12
-0.099999905 -2.2754998 0.14
-0.099999905 -2.2754998 0.16
-0.099999905 -2.2754998 0.18000001
-0.099999905 -2.2754998 0.2
-0.099999905 -2.2754998 0.22
-0.099999905 -2.2754998 0.23999999
-0.099999905 -2.2754998 0.25999999
-0.099999905 -2.2754998 0.28
-0.099999905 -2.2754998 0.30000001
-0.099999905 -2.2754998 0.31999999
-0.099999905 -2.2754998 0.34
-0.099999905 -2.2754998 0.36000001
-0.099999905 -2.2754998 0.38
-0.099999905 -2.2754998 0.40000001
-0.099999905 -2.2754998 0.41999999
-0.099999905 -2.2754998 0.44
-0.099999905 -2.2754998 0.46000001
-0.099999905 -2.2754998 0.47999999
-0.099999905 -2.2754998 0.5
-0.099999905 -2.2754998 0.51999998
-0.099999905 -2.2754998 0.54000002
-0.099999905 -2.2754998 0.56
-0.099999905 -2.2754998 0.57999998
-0.099999905 -2.2754998 0.60000002
-0.099999905 -2.2754998 0.62
-0.099999905 -2.2754998 0.63999999
-0.099999905 -2.2754998 0.66000003
-0.099999905 -2.2754998 0.68000001
-0.099999905 -2.2754998 0.69999999
-0.099999905 -2.2754998 0.72000003
-0.099999905 -2.2754998 0.74000001
-0.099999905 -2.2754998 0.75999999
-0.099999905 -2.2754998 0.77999997
0.10000014 -2.2755001 0
0.10000014 -2.2755001 0.02
0.10000014 -2.2755001 0.039999999
0.10000014 -2.2755001 0.059999999
0.10000014 -2.2755001 0.079999998
0.10000014 -2.2755001 0.1
0.10000014 -2.2755001 0.12
0.10000014 -2.2755001 0.14
0.10000014 -2.2755001 0.16
0.10000014 -2.2755001 0.18000001
0.10000014 -2.2755001 0.2
0.10000014 -2.2755001 0.22
0.10000014 -2.2755001 0.23999999
0.10000014 -2.2755001 0.25999999
0.10000014 -2.2755001 0.28
0.10000014 -2.2755001 0.30000001
0.10000014 -2.2755001 0.31999999
0.10000014 -2.2755001 0.34
0.10000014 -2.2755001 0.36000001
0.10000014 -2.2755001 0.38
0.10000014 -2.2755001 0.40000001
0.10000014 -2.2755001 0.41999999
0.10000014 -2.2755001 0.44
0.10000014 -2.2755001 0.46000001
0.10000014 -2.2755001 0.47999999
0.10000014 -2.2755001 0.5
0.10000014 -2.2755001 0.51999998
0.10000014 -2.2755001 0.54000002
0.10000014 -2.2755001 0.56
0.10000014 -2.2755001 0.57999998
0.10000014 -2.2755001 0.60000002
0.10000014 -2.2755001 0.62
0.10000014 -2.2755001 0.63999999
0.10000014 -2.2755001 0.66000003
0.10000014 -2.2755001 0.68000001
0.10000014 -2.2755001 0.69999999
0.10000014 -2.2755001 0.72000003
0.10000014 -2.2755001 0.74000001
0.10000014 -2.2755001 0.75999999
0.10000014 -2.2755001 0.77999997
2.24 -2.2754998 0
2.24 -2.2754998 0.02
2.24 -2.2754998 0.039999999
2.24 -2.2754998 0.059999999
2.24 -2.2754998 0.079999998
2.24 -2.2754998 0.1
2.24 -2.2754998 0.12
2.24 -2.2754998 0.14
2.24 -2.2754998 0.16
2.24 -2.2754998 0.18000001
2.24 -2.2754998 0.2
2.24 -2.2754998 0.22
2.24 -2.2754998 0.23999999
2.24 -2.2754998 0.25999999
2.24 -2.2754998 0.28
2.24 -2.2754998 0.30000001
2.24 -2.2754998 0.31999999
2.24 -2.2754998 0.34
2.24 -2.2754998 0.36000001
2.24 -2.2754998 0.38
2.24 -2.2754998 0.40000001
2.24 -2.2754998 0.41999999
2.24 -2.2754998 0.44
2.24 -2.2754998 0.46000001
2.24 -2.2754998 0.47999999
2.24 -2.2754998 0.5
2.24 -2.2754998 0.51999998
2.24 -2.2754998 0.54000002
2.24 -2.2754998 0.56
2.24 -2.2754998 0.57999998
2.24 -2.2754998 0.60000002
2.24 -2.2754998 0.62
2.24 -2.2754998 0.63999999
2.24 -2.2754998 0.66000003
2.24 -2.2754998 0.68000001
2.24 -2.2754998 0.69999999
2.24 -2.2754998 0.72000003
2.24 -2.2754998 0.74000001
2.24 -2.2754998 0.75999999
2.24 -2.2754998 0.77999997
-2.24 -2.2655001 0
-2.24 -2.2655001 0.02
-2.24 -2.2655001 0.039999999
-2.24 -2.2655001 0.059999999
-2.24 -2.2655001 0.079999998
-2.24 -2.2655001 0.1
-2.24 -2.2655001 0.12
-2.24 -2.2655001 0.14
